# .PCD v0.7 - Point Cloud Data file format
VERSION 0.7
FIELDS x y z intensity ring time
SIZE 4 4 4 4 2 4
TYPE F F F F U F
COUNT 1 1 1 1 1 1
WIDTH 943
HEIGHT 1
VIEWPOINT 0 0 0 1 0 0 0
POINTS 943
DATA ascii
1.3728377 2.7728512 0.60143 35 13 -0.091521449
1.1604154 2.3427732 -0.13701554 1 6 -0.09151914
1.4198909 2.8653731 0.73828942 39 14 -0.091516837
2.1547654 4.3464608 -0.084679075 6 7 -0.091514535
1.4317528 2.8867776 0.86342037 1 15 -0.091512233
2.2907863 4.6026525 0.089740276 49 8 -0.091489188
0.39000592 0.78325796 -0.20200607 5 1 -0.091486886
2.2735701 4.5640674 0.26722744 39 9 -0.091484584
0.45695153 0.91730523 -0.19920459 2 2 -0.091482282
1.3836875 2.7764628 0.27140298 32 10 -0.091479972
0.4803676 0.96346891 -0.17051359 1 3 -0.09147767
1.3884457 2.7835763 0.38193855 30 11 -0.091475368
0.61956817 1.2415767 -0.17037337 2 4 -0.091473065
1.3764409 2.7570987 0.48807558 31 12 -0.091470756
0.78759062 1.5775943 -0.15426566 1 5 -0.091468453
1.3877724 2.77858 0.60371965 34 13 -0.091466151
1.1792985 2.3601484 -0.13827161 1 6 -0.091463849
1.4316278 2.8638854 0.73918921 45 14 -0.091461547
2.1627703 4.3246045 -0.084399842 4 7 -0.091459237
1.4418203 2.8817627 0.86342037 1 15 -0.091456935
2.2888949 4.5588861 0.089042179 49 8 -0.091433898
2.2832112 4.5436101 0.26649469 43 9 -0.091429286
0.46015099 0.91570443 -0.19920459 2 2 -0.091426983
1.3906869 2.7662754 0.27088004 31 10 -0.091424681
0.48372763 0.96178633 -0.17051359 1 3 -0.091422372
1.4017236 2.7858057 0.38291353 31 11 -0.091420069
0.62389863 1.2394062 -0.17037337 2 4 -0.091417767
1.3878329 2.7558062 0.48870131 31 12 -0.091415465
0.80115759 1.5908508 -0.15583447 1 5 -0.091413163
1.3992293 2.7772257 0.60448295 34 13 -0.091410853
1.1803386 2.3417492 -0.13743424 1 6 -0.091408551
1.4460011 2.8675716 0.74143875 45 14 -0.091406249
2.1724474 4.3063164 -0.084190413 4 7 -0.091403946
1.4466488 2.866364 0.86031455 1 15 -0.091401637
2.287627 4.5169735 0.088378988 45 8 -0.091378599
0.40779531 0.8048529 -0.20830469 4 1 -0.091376297
2.2856269 4.5110712 0.26502931 39 9 -0.091373987
0.4633444 0.91409272 -0.19920459 2 2 -0.091371685
1.4021362 2.7649584 0.27122867 31 10 -0.091369383
0.48529476 0.9565686 -0.16988786 1 3 -0.091367081
1.4150338 2.7879758 0.38388845 30 11 -0.091364779
0.63181573 1.2443008 -0.1713483 1 4 -0.091362469
1.4014363 2.759995 0.49026567 30 12 -0.091360167
0.81212044 1.5987024 -0.15688033 1 5 -0.091357864
1.4071368 2.7688236 0.60371965 34 13 -0.091355562
1.1921259 2.3447363 -0.13785292 1 6 -0.091353253
2.1812754 4.2883949 -0.083980985 4 7 -0.091348648
1.4368719 2.8236721 0.84892654 1 15 -0.091346346
2.2907703 4.4862108 0.087925225 42 8 -0.091323301
0.39805087 0.77920032 -0.20200607 5 1 -0.091320999
2.2895451 4.4799447 0.26366857 36 9 -0.091318697
0.46653217 0.91246986 -0.19920459 2 2 -0.091316395
1.4217602 2.7795587 0.27314609 31 10 -0.091314085
0.49925917 0.97605771 -0.17364228 1 3 -0.091311783
1.4206536 2.7761998 0.38291353 31 11 -0.09130948
0.62327379 1.217461 -0.16793597 2 4 -0.091307178
1.4164656 2.765635 0.49214289 30 12 -0.091304868
0.81406224 1.5887649 -0.15618308 1 5 -0.091302566
1.4216818 2.774626 0.60600942 34 13 -0.091300264
1.1871393 2.3158875 -0.13638751 1 6 -0.091297962
2.1834533 4.2558455 -0.083492316 3 7 -0.09129335
1.4643605 2.8530138 0.85927927 1 15 -0.091291048
2.2908518 4.4479647 0.087331839 42 8 -0.09126801
0.42576006 0.82631105 -0.21460332 3 1 -0.091265701
2.277715 4.4186678 0.26052842 31 9 -0.091263399
0.46955574 0.91091764 -0.19920459 2 2 -0.091261096
1.434622 2.7819121 0.27384335 33 10 -0.091258794
0.49541789 0.96026486 -0.17113933 1 3 -0.091256484
1.4357978 2.7818079 0.38437593 30 11 -0.091254182
0.63480628 1.2293885 -0.16988587 2 4 -0.09125188
1.4306448 2.7694488 0.49370724 31 12 -0.091249578
0.8229844 1.593137 -0.15688033 1 5 -0.091247268
1.4394701 2.7853439 0.60944396 29 13 -0.091244966
1.1897129 2.3010843 -0.13575949 1 6 -0.091242664
2.1808331 4.2144542 -0.082829125 1 7 -0.091238052
1.4743112 2.8478847 0.85927927 1 15 -0.091235749
2.2989891 4.425745 0.087052606 42 8 -0.091212712
0.40348068 0.77640259 -0.20200607 5 1 -0.09121041
2.2682512 4.3628435 0.25770226 39 9 -0.0912081
0.47273278 0.90927291 -0.19920459 2 2 -0.091205798
1.443404 2.77512 0.27366903 31 10 -0.091203496
0.51517886 0.99007207 -0.17677096 1 3 -0.091201194
1.4491667 2.7838221 0.38535091 29 11 -0.091198884
0.64459497 1.237729 -0.1713483 1 4 -0.091196582
1.4366504 2.7574315 0.49245578 31 12 -0.091194279
0.82117462 1.5761195 -0.15548584 1 5 -0.091191977
1.4509996 2.7837837 0.6102072 26 13 -0.091189668
1.2005091 2.3022301 -0.1360735 1 6 -0.091187365
1.5106385 2.8957393 0.75403601 1 14 -0.091185063
2.193682 4.20327 -0.082759313 1 7 -0.091182761
1.4735146 2.8221707 0.85306764 1 15 -0.091180459
2.3051448 4.3999791 0.086703561 57 8 -0.091157414
0.43151882 0.8233183 -0.21460332 3 1 -0.091155112
2.2741885 4.3372121 0.25665554 63 9 -0.09115281
0.47590324 0.90761751 -0.19920459 2 2 -0.0911505
1.4540085 2.7718289 0.27384335 33 10 -0.091148198
0.50761688 0.96727788 -0.17301655 1 3 -0.091145895
1.4625642 2.7857778 0.38632584 29 11 -0.091143593
0.64891189 1.2354711 -0.1713483 1 4 -0.091141284
1.4499429 2.7593942 0.49370724 31 12 -0.091138981
0.81833088 1.5573698 -0.15391703 1 5 -0.091136679
1.460706 2.778703 0.6102072 23 13 -0.091134377
1.2057484 2.2927225 -0.13575949 1 6 -0.091132075
1.5007759 2.8525069 0.74413812 3 14 -0.091129765
2.206475 4.1920495 -0.082689509 1 7 -0.091127463
1.4923571 2.8341041 0.858244 1 15 -0.09112516
2.3251617 4.4007454 0.086878076 76 8 -0.091102116
0.40889114 0.7735669 -0.20200607 5 1 -0.091099814
2.2855809 4.3221846 0.25623688 45 9 -0.091097511
0.47906876 0.90595067 -0.19920459 2 2 -0.091095209
1.4646075 2.7684972 0.27401763 31 10 -0.091092899
0.50544584 0.95502466 -0.17113933 1 3 -0.091090597
1.4759958 2.7876728 0.38730082 30 11 -0.091088295
0.64392895 1.2156565 -0.16891092 1 4 -0.091085993
1.4632654 2.7612982 0.4949587 31 12 -0.091083691
0.83215797 1.5703483 -0.15548584 1 5 -0.091081381
1.4713169 2.7753212 0.61058879 19 13 -0.091079079
1.2156165 2.2920282 -0.13596882 1 6 -0.091076776
1.5180304 2.8610225 0.74773735 4 14 -0.091074474
2.2042193 4.1525278 -0.082061216 1 7 -0.091072164
2.3442674 4.3996634 0.087017693 73 8 -0.091046825
0.42442262 0.79621023 -0.20830469 4 1 -0.091044515
2.3100536 4.3318028 0.2572836 42 9 -0.091042213
0.48222846 0.90427274 -0.19920459 2 2 -0.091039911
1.4789497 2.7721581 0.2748892 31 10 -0.091037609
0.51621759 0.96719587 -0.17364228 1 3 -0.091035306
1.4810433 2.7737477 0.38608211 28 11 -0.091032997
0.64816761 1.2134018 -0.16891092 1 4 -0.091030695
1.4784821 2.7666264 0.49683592 32 12 -0.091028392
0.84326923 1.5779771 -0.15653172 2 5 -0.09102609
1.4800708 2.7684369 0.6102072 18 13 -0.09102378
1.2179575 2.2772043 -0.13534079 1 6 -0.091021478
0.42719916 0.79472393 -0.20830469 4 1 -0.090989225
2.3355649 4.3430629 0.25843498 40 9 -0.090986922
0.48538181 0.90258408 -0.19920459 2 2 -0.090984613
1.4942818 2.7775059 0.27593508 34 10 -0.09098231
0.5233357 0.97234571 -0.17489375 1 3 -0.090980008
1.4944803 2.7755525 0.38705707 27 11 -0.090977706
0.6523996 1.2111317 -0.16891092 1 4 -0.090975396
1.4918797 2.768404 0.49808741 33 12 -0.090973094
0.85160816 1.5802852 -0.15705465 2 5 -0.090970792
1.4934515 2.7701664 0.61173368 18 13 -0.09096849
1.2372757 2.2940335 -0.13659686 1 6 -0.09096618
1.5370432 2.8486392 0.74728745 38 14 -0.090963878
1.8807523 3.4841926 -0.069111533 1 7 -0.090961576
1.8833646 3.4759593 0.069006816 1 8 -0.090936229
0.41696924 0.7692427 -0.20200607 5 1 -0.090933926
0.48852971 0.90088415 -0.19920459 2 2 -0.090929322
1.5077677 2.7792783 0.27663234 34 10 -0.090927012
0.52295732 0.96356845 -0.17364228 1 3 -0.09092471
1.5079494 2.7772968 0.38803205 28 11 -0.090922408
0.64714789 1.1914035 -0.16647354 1 4 -0.090920106
1.4977608 2.7562373 0.49683592 33 12 -0.090917796
0.85236239 1.5685502 -0.15618308 2 5 -0.090915494
1.5049881 2.7683854 0.61249691 18 13 -0.090913191
1.2414596 2.2826822 -0.13617818 1 6 -0.090910889
1.5553589 2.8586628 0.75133657 30 14 -0.09090858
1.9015079 3.4934127 -0.069425672 1 7 -0.090906277
1.9050752 3.4869123 0.069355868 1 8 -0.090880938
0.41965207 0.76778239 -0.20200607 5 1 -0.090878628
1.8551006 3.3926275 0.20264484 1 9 -0.090876326
0.4916712 0.8991735 -0.19920459 2 2 -0.090874024
1.5155483 2.7705019 0.27628368 34 10 -0.090871722
0.5206275 0.95134008 -0.17176506 1 3 -0.090869412
1.5214472 2.7789812 0.38900697 29 11 -0.09086711
0.66083896 1.2065476 -0.16891092 2 4 -0.090864807
1.5130676 2.7613869 0.49871314 33 12 -0.090862505
0.84251368 1.537609 -0.1533941 2 5 -0.090860195
1.517473 2.7682803 0.61364174 16 13 -0.090857893
1.2474988 2.2748325 -0.13596882 1 6 -0.090855591
2.3418405 4.2668476 -0.084958315 5 7 -0.090850987
2.4160841 4.3857689 0.087401658 50 8 -0.09082564
0.43549779 0.79020691 -0.20830469 4 1 -0.090823337
2.4399312 4.4272332 0.26492465 28 9 -0.090821028
0.49480715 0.89745164 -0.19920459 2 2 -0.090818726
1.5348336 2.7826405 0.27802682 33 10 -0.090816423
0.52394491 0.94951701 -0.17176506 1 3 -0.090814121
1.5349765 2.7806046 0.38998193 28 11 -0.090811811
0.67059296 1.2147768 -0.17037337 2 4 -0.090809509
1.5279468 2.7667289 0.50059032 31 12 -0.090807207
0.86040097 1.5573299 -0.15566015 2 5 -0.090804905
1.5176305 2.7457833 0.60982555 14 13 -0.090802602
1.26703 2.2914381 -0.1372249 1 6 -0.090800293
1.5728953 2.844599 0.75043678 1 14 -0.090797991
2.346297 4.2415609 -0.084609263 4 7 -0.090795688
2.4238188 4.3654952 0.087157324 49 8 -0.090770341
0.42486846 0.76490808 -0.20200607 5 1 -0.090768039
0.49778029 0.89580595 -0.19920459 2 2 -0.090763435
1.544052 2.7775357 0.27802682 36 10 -0.090761125
0.53285158 0.95813239 -0.17364228 1 3 -0.090758823
1.5412931 2.7702956 0.38925073 30 11 -0.090756521
0.67075688 1.2056077 -0.16939841 2 4 -0.090754218
1.5447983 2.7754555 0.5030933 32 12 -0.090751909
0.86749947 1.5579494 -0.15600878 1 5 -0.090749606
1.5295932 2.7458813 0.61097044 4 13 -0.090747304
1.2648989 2.2697778 -0.13617818 1 6 -0.090745002
2.3058209 4.1359468 -0.082654595 4 7 -0.09074039
2.4724581 4.4185114 0.088378988 30 8 -0.090715051
2.4641566 4.4000659 0.26429659 24 9 -0.090710439
0.50074846 0.8941502 -0.19920459 2 2 -0.090708137
1.5610443 2.7863061 0.2794213 34 10 -0.090705834
0.53023082 0.9460212 -0.17176506 1 3 -0.090703525
1.5524137 2.7686317 0.3897382 32 11 -0.090701222
0.68467313 1.2205718 -0.1718358 2 4 -0.09069892
1.55641 2.7734919 0.50371903 32 12 -0.090696618
0.87363577 1.5568018 -0.15618308 2 5 -0.090694308
1.5329248 2.7305219 0.60868073 9 13 -0.090692006
1.2782875 2.2760186 -0.1368062 1 6 -0.090689704
2.2506771 4.004106 -0.080176361 1 7 -0.090685092
0.44347483 0.78575784 -0.20830469 4 1 -0.09065745
0.5038659 0.89239711 -0.19920459 2 2 -0.090652838
1.5766408 2.7912483 0.28046718 34 10 -0.090650536
0.53936106 0.95448315 -0.17364228 1 3 -0.090648234
1.5718356 2.7804775 0.39217559 30 11 -0.090645924
0.68502039 1.2112628 -0.17086083 2 4 -0.090643622
1.5651097 2.7663224 0.50340617 16 12 -0.09064132
0.86238647 1.5242631 -0.1532198 1 5 -0.090639018
1.5588847 2.7542012 0.61516827 7 13 -0.090636708
1.2783511 2.2576392 -0.13596882 1 6 -0.090634406
1.7904344 3.1478937 0.063212618 1 8 -0.090604454
0.44621474 0.78420514 -0.20830469 4 1 -0.090602152
1.7863847 3.1382275 0.18924683 2 9 -0.09059985
0.50697815 0.89063275 -0.19920459 2 2 -0.09059754
1.5844035 2.7822647 0.28011855 34 10 -0.090595238
0.54268932 0.95259476 -0.17364228 1 3 -0.090592936
1.5854641 2.781872 0.39315054 29 11 -0.090590633
0.6912111 1.2123131 -0.1713483 1 4 -0.090588324
1.5737772 2.7591267 0.5030933 22 12 -0.090586022
0.88349587 1.5489341 -0.15600878 1 5 -0.090583719
1.5684899 2.7487426 0.61516827 3 13 -0.090581417
1.2961262 2.2705081 -0.13701554 1 6 -0.090579107
1.7726654 3.1027801 -0.062374901 1 7 -0.090574503
1.8024043 3.1433606 0.063247517 2 8 -0.090549156
0.46252477 0.80630785 -0.21460332 3 1 -0.090546854
1.8092582 3.1527596 0.1905029 1 9 -0.090544552
0.51008415 0.88885748 -0.19920459 2 2 -0.090542249
1.5921198 2.7732625 0.27976993 34 10 -0.09053994
0.53223819 0.92671305 -0.16926211 1 3 -0.090537637
1.6010995 2.7866478 0.39461297 29 11 -0.090535335
0.69939482 1.2167776 -0.17232326 1 4 -0.090533033
1.5932463 2.7707403 0.50622195 26 12 -0.090530723
0.88095218 1.5320228 -0.15461428 1 5 -0.090528421
1.5770971 2.7415483 0.61478662 2 13 -0.090526119
1.3100196 2.2763574 -0.13764358 1 6 -0.090523817
1.7984565 3.1225655 -0.062898472 2 7 -0.090519205
0.46533668 0.80468827 -0.21460332 3 1 -0.090491556
2.3463247 4.0557775 0.24556033 1 9 -0.090489253
0.51318359 0.88707173 -0.19920459 2 2 -0.090486951
1.6117713 2.7849319 0.28151307 33 10 -0.090484649
0.54536778 0.94194448 -0.17239079 1 3 -0.090482339
0.68970484 1.1902825 -0.16891092 1 4 -0.090477735
1.609844 2.7771246 0.50841206 28 12 -0.090475433
0.89828551 1.5496228 -0.15670602 1 5 -0.09047313
1.6132486 2.781882 0.6250903 1 13 -0.090470821
1.2999177 2.2406738 -0.13575949 1 6 -0.090468518
0.36560091 0.62766105 -0.19463193 7 0 -0.090440869
0.44066218 0.75591969 -0.20200607 5 1 -0.090436265
2.3665056 4.0579128 0.24618836 1 9 -0.090433963
0.48858416 0.83778882 -0.1885193 3 2 -0.090431653
1.6244942 2.7844517 0.28203598 30 10 -0.090429351
0.52873707 0.90591437 -0.16613342 1 3 -0.090427049
0.6958583 1.1912959 -0.16939841 1 4 -0.090422437
1.6245093 2.7800171 0.50997645 27 12 -0.090420134
0.88559425 1.5155144 -0.15356842 1 5 -0.090417832
1.2895828 2.2050891 -0.13387538 1 6 -0.09041322
2.1404161 3.6570199 -0.073963299 1 7 -0.090408616
2.3340948 3.9704266 0.24137343 1 9 -0.090378664
0.519364 0.88346738 -0.19920459 2 2 -0.090376362
1.6170343 2.749568 0.27907267 16 10 -0.090374053
0.56595367 0.9619503 -0.17677096 1 3 -0.09037175
1.6392546 2.7851255 0.3968066 27 11 -0.090369448
0.69396889 1.1785961 -0.16793597 2 4 -0.090367146
1.637212 2.7794354 0.51091504 17 12 -0.090364836
0.90301406 1.5330141 -0.15566015 1 5 -0.090362534
1.3216147 2.2418675 -0.13638751 1 6 -0.090357929
2.1145551 3.5840797 -0.072636917 1 7 -0.090353318
2.4146254 4.078032 0.082724407 2 8 -0.090327978
0.45983297 0.77629822 -0.20830469 4 1 -0.090325668
2.3683028 3.9966202 0.2434669 1 9 -0.090323366
0.52244449 0.88164914 -0.19920459 2 2 -0.090321064
1.5768389 2.6599267 0.27053142 19 10 -0.090318762
0.56326216 0.94977474 -0.17489375 1 3 -0.090316452
1.6540306 2.7879233 0.39802533 31 11 -0.09031415
0.70821089 1.1932371 -0.17037337 2 4 -0.090311848
1.649929 2.7787993 0.51185364 7 12 -0.090309545
0.8981874 1.5127212 -0.15391703 1 5 -0.090307236
1.3171892 2.2166362 -0.13513145 1 6 -0.090302631
2.3907619 4.0201097 -0.081642359 3 7 -0.090298027
2.0189133 3.3827302 0.068762481 1 8 -0.090228163
0.50538433 0.84611046 -0.19157225 2 2 -0.090221249
1.65663 2.772418 0.28255892 24 10 -0.090218946
0.56657434 0.94780266 -0.17489375 1 3 -0.090216644
1.6678281 2.7889469 0.39900026 29 11 -0.090214334
0.72256279 1.2077929 -0.17281075 2 4 -0.090212032
1.658605 2.7713277 0.51154077 3 12 -0.09020973
0.90960169 1.519834 -0.15496291 2 5 -0.090207428
1.6620179 2.7759304 0.62890649 1 13 -0.090205118
1.3279972 2.2171655 -0.13544546 1 6 -0.090202816
2.4335685 4.059763 -0.082619689 3 7 -0.090198211
2.4430344 4.0610766 0.082724407 2 8 -0.090172864
0.47930911 0.79644477 -0.21460332 3 1 -0.090170562
0.50833452 0.84434128 -0.19157225 2 2 -0.09016595
1.6765764 2.7836864 0.28430203 24 10 -0.090163648
0.55560708 0.9221313 -0.17051359 1 3 -0.090161346
1.6724287 2.7746079 0.39778158 24 11 -0.090159044
0.7267741 1.2052635 -0.17281075 1 4 -0.090156734
1.6856154 2.7942753 0.51685953 1 12 -0.090154432
0.90563965 1.5012953 -0.1533941 1 5 -0.09015213
1.6473519 2.7297709 0.61974764 1 13 -0.090149827
1.3295346 2.2022579 -0.13481744 1 6 -0.090147518
2.4487579 4.0529556 -0.082654595 1 7 -0.090142913
0.41740406 0.68813133 -0.18580958 6 1 -0.090115264
0.51535285 0.84927523 -0.19309872 2 2 -0.09011066
1.691452 2.7863328 0.28517357 24 10 -0.09010835
0.55882233 0.92018634 -0.17051359 1 3 -0.090106048
1.684166 2.7721457 0.39826906 16 11 -0.090103745
0.71860456 1.1823632 -0.16988587 2 4 -0.090101443
1.7082077 2.8106163 0.52092683 1 12 -0.090099134
0.93571633 1.5389831 -0.15757757 1 5 -0.090096831
1.6670737 2.740777 0.62356383 1 13 -0.090094529
1.3340997 2.1924841 -0.13450342 1 6 -0.090092227
2.4465892 4.0191908 -0.082131028 1 7 -0.090087615
0.52130187 0.85302514 -0.23079979 2 1 -0.090059966
0.51421672 0.84077185 -0.19157225 2 2 -0.090055361
1.7032484 2.7838104 0.28552222 24 10 -0.090053059
0.57424206 0.93854833 -0.17426802 1 3 -0.090050749
1.7026757 2.7817841 0.40046272 8 11 -0.090048447
0.71215564 1.163044 -0.16744849 2 4 -0.090046145
1.7324547 2.8282185 0.525307 1 12 -0.090043843
0.92963189 1.5170205 -0.15566015 1 5 -0.090041541
1.6884634 2.7553203 0.62814325 1 13 -0.090039231
1.3559763 2.2118871 -0.13596882 1 6 -0.090036929
2.2514589 3.6697309 -0.075150065 1 7 -0.090032324
0.42207837 0.68527418 -0.18580958 6 1 -0.090004675
2.4055703 3.9040923 0.24032672 1 9 -0.090002365
0.50876278 0.82569057 -0.1885193 3 2 -0.090000063
1.7114255 2.7764502 0.28534791 22 10 -0.089997761
0.57129389 0.92644948 -0.17239079 1 3 -0.089995459
1.7248816 2.7960978 0.40338758 3 11 -0.089993156
0.73914689 1.1977156 -0.17281075 2 4 -0.089990847
1.7423171 2.8221533 0.525307 1 12 -0.089988545
0.92209721 1.4935856 -0.15356842 1 5 -0.089986242
1.7269549 2.7961812 0.63882852 1 13 -0.08998394
1.3741877 2.2241311 -0.13701554 1 6 -0.08998163
0.42446768 0.68379676 -0.18580958 6 1 -0.089949377
0.5116421 0.82390952 -0.1885193 3 2 -0.089944772
1.7347755 2.7924602 0.28761396 16 10 -0.089942463
0.56618261 0.91102785 -0.16988786 1 3 -0.089940161
1.7419689 2.8018601 0.40509373 2 11 -0.089937858
0.73283941 1.1782715 -0.17037337 2 4 -0.089935556
1.737547 2.7925735 0.52092683 1 12 -0.089933246
0.94204062 1.5140412 -0.15600878 1 5 -0.089930944
1.7367055 2.7901354 0.63882852 1 13 -0.089928642
1.3608291 2.1854117 -0.1349221 1 6 -0.08992634
0.38502809 0.61593491 -0.19463193 7 0 -0.089898691
0.51034868 0.81546181 -0.18699282 3 2 -0.089889474
1.7540261 2.8015871 0.28918275 5 10 -0.089887172
0.56726235 0.90569746 -0.16926211 1 3 -0.089884862
1.7517394 2.7957621 0.40509373 1 11 -0.08988256
0.72851276 1.1622508 -0.16842344 2 4 -0.089880258
1.7462356 2.784817 0.52061397 3 12 -0.089877956
0.94943726 1.5141194 -0.15635739 1 5 -0.089875646
1.3642013 2.1738822 -0.13450342 1 6 -0.089871041
0.46664563 0.74016178 -0.20200607 5 1 -0.089838788
0.51319224 0.81367522 -0.18699282 3 2 -0.089834176
1.7627324 2.7937622 0.28900844 2 10 -0.089831874
0.57252854 0.90705323 -0.16988786 1 3 -0.089829572
1.7996421 2.8500557 0.41386834 1 11 -0.089827262
0.75588906 1.1966231 -0.1737857 1 4 -0.08982496
1.760165 2.7853856 0.52186543 1 12 -0.089822657
0.96003753 1.5192182 -0.15722896 1 5 -0.089820355
1.3931326 2.202867 -0.13659686 1 6 -0.089815743
0.52024209 0.81850642 -0.1885193 3 2 -0.089778878
1.7810254 2.8010428 0.29040295 1 10 -0.089776576
0.58205271 0.91504943 -0.17176506 1 3 -0.089774273
0.73660898 1.1571366 -0.16842344 1 4 -0.089769661
1.7985269 2.8242116 0.5303129 1 12 -0.089767359
0.96747547 1.5192186 -0.15757757 1 5 -0.089765057
1.4179877 2.2249396 -0.13827161 1 6 -0.089760453
0.48651287 0.75986212 -0.20830469 4 1 -0.089728191
0.53156668 0.82991147 -0.19157225 2 2 -0.089723587
1.8273394 2.851845 0.29632953 1 10 -0.089721277
0.58311146 0.90968591 -0.17113933 1 3 -0.089718975
0.74278766 1.1578997 -0.16891092 1 4 -0.089714371
0.96416444 1.5024174 -0.15618308 1 5 -0.089709759
0.52594328 0.81485468 -0.1885193 3 2 -0.089668289
0.57985228 0.89768916 -0.16926211 1 3 -0.089663684
0.76406801 1.1819732 -0.17281075 1 4 -0.089659072
0.96291113 1.4890047 -0.15513723 1 5 -0.089654468
0.4003475 0.61601079 -0.16961309 8 1 -0.089617603
0.51593935 0.79326469 -0.18393987 3 2 -0.089612991
0.58713502 0.90238452 -0.17051359 2 3 -0.089608386
0.75498486 1.1594709 -0.16988587 1 4 -0.089603774
0.95831341 1.4706109 -0.15356842 1 5 -0.08959917
0.38754871 0.59178573 -0.16331448 8 1 -0.089562304
0.52717417 0.80468696 -0.18699282 3 2 -0.0895577
0.58594918 0.8937214 -0.16926211 1 3 -0.089553088
0.76338321 1.1634675 -0.17086083 1 4 -0.089548483
0.98505026 1.5007378 -0.15705465 1 5 -0.089543872
0.38961196 0.59042948 -0.16331448 8 1 -0.089507006
0.52132696 0.78973442 -0.18393987 3 2 -0.089502402
0.60213125 0.91144907 -0.17301655 1 3 -0.08949779
0.75211322 1.1376128 -0.16744849 1 4 -0.089493185
0.9683007 1.4640542 -0.15356842 1 5 -0.089488573
0.52408069 0.78790963 -0.18393987 3 2 -0.089447103
0.58122838 0.87316513 -0.16613342 1 3 -0.089442499
0.75607944 1.1349806 -0.16744849 1 4 -0.089437887
0.39372471 0.58769488 -0.16331448 8 1 -0.089396417
0.5486877 0.81869286 -0.19157225 2 2 -0.089391813
0.5952763 0.88753635 -0.16926211 1 3 -0.089387201
0.77331275 1.1521132 -0.17037337 1 4 -0.089382596
0.53396332 0.79073989 -0.18546635 3 2 -0.089336514
0.59615839 0.8821798 -0.16863638 1 3 -0.089331903
0.80846709 1.1954489 -0.17719805 1 4 -0.089327298
0.39781803 0.58493185 -0.16331448 8 1 -0.089285828
0.57255238 0.84090543 -0.16112752 1 3 -0.089276612
1.1103581 -1.3869454 -0.21814615 1 4 -0.059433695
0.87166667 -1.0962278 -0.22182411 1 3 -0.059383005
1.0808058 -1.3597332 -0.21327138 2 4 -0.059378397
0.66207677 -0.8380338 -0.20760021 2 2 -0.059332319
0.85069847 -1.0775577 -0.21744394 1 3 -0.05932771
1.0770445 -1.3652439 -0.2135151 2 4 -0.059323102
0.99391866 -1.2612325 -0.084156223 11 6 -0.059313886
0.66157073 -0.84342921 -0.20836343 2 2 -0.05927702
0.83493179 -1.0648279 -0.21431525 2 3 -0.059272412
1.0688384 -1.3641202 -0.21278389 2 4 -0.059267804
0.98385316 -1.25656 -0.13962351 13 5 -0.059263196
0.97988296 -1.2519393 -0.083318852 5 6 -0.059258588
0.61722976 -0.7888822 0.23124969 1 14 -0.059256285
0.66359639 -0.85181338 -0.2098899 2 2 -0.059221726
0.81179458 -1.042796 -0.20930934 2 3 -0.059217118
1.0591946 -1.3615756 -0.21180893 2 4 -0.05921251
0.97968084 -1.2598156 -0.13962351 6 5 -0.059207901
0.59643352 -0.76725715 0.18890092 1 13 -0.059205599
0.59056282 -0.76025248 0.22225165 2 14 -0.059200991
0.64860767 -0.83859515 -0.20607373 2 2 -0.059166428
0.81781358 -1.058127 -0.2118123 2 3 -0.05916182
0.59226787 -0.76658142 0.1189445 2 11 -0.059159517
0.59513873 -0.77085328 0.15424441 1 12 -0.059154909
0.59974921 -0.77710539 0.190809 2 13 -0.059150301
0.56886393 -0.7376191 0.21505322 4 14 -0.059145693
0.65763336 -0.85642546 -0.2098899 2 2 -0.059111133
0.60900927 -0.79338944 0.087504365 1 10 -0.059108831
0.81652004 -1.0641096 -0.21243803 1 3 -0.059106525
0.61495996 -0.8017211 0.124063 1 11 -0.059104223
0.59604943 -0.77762938 0.155183 3 12 -0.059099615
0.59822708 -0.7807526 0.19119063 5 13 -0.059095006
0.96434444 -1.2594867 0.36622033 2 14 -0.059090398
0.6546399 -0.85871577 -0.2098899 2 2 -0.059055839
0.59899026 -0.78600246 0.086458497 1 10 -0.059053533
0.59772563 -0.78491122 0.12113813 6 11 -0.059048925
0.58017278 -0.76241344 0.15174145 6 12 -0.059044316
0.83916491 -1.1031582 0.26942232 2 13 -0.059039708
0.95758355 -1.2597424 0.36532053 8 14 -0.0590351
0.60762072 -0.80254477 0.052754648 1 9 -0.059002846
0.6611169 -0.87351918 -0.21294285 2 2 -0.059000541
0.5950408 -0.78649956 0.086284183 4 10 -0.058998238
0.58540499 -0.77432501 0.11918823 2 11 -0.05899363
0.97137219 -1.2862496 0.31330839 5 13 -0.058984414
0.96022356 -1.2724104 0.36801994 20 14 -0.058979806
0.93074 -1.2337891 0.41411048 1 15 -0.058975197
0.62747145 -0.83419639 0.018220313 1 8 -0.058952156
0.58921516 -0.78390574 0.051393915 4 9 -0.058947548
0.5791297 -0.77104807 0.084366761 1 10 -0.05894294
0.97019809 -1.2921826 0.1984033 3 11 -0.058938332
0.95907331 -1.2782948 0.25311098 8 12 -0.058933724
0.94472039 -1.2596222 0.30605766 19 13 -0.058929116
0.94781786 -1.2646718 0.36487064 30 14 -0.058924511
0.57910842 -0.77298462 -0.016859025 3 7 -0.058922205
0.92295367 -1.2323916 0.41255757 3 15 -0.058919903
0.59823346 -0.80113178 0.017452406 4 8 -0.058896862
0.8432821 -1.1301144 0.073898375 1 9 -0.058892254
0.96372914 -1.2920002 0.14101799 4 10 -0.058887646
0.93602318 -1.2557714 0.19230984 15 11 -0.058883037
0.94617999 -1.2707858 0.30796573 20 13 -0.058873821
0.62367439 -0.83794361 -0.054743413 1 6 -0.058871519
0.94339758 -1.2679727 0.36487064 23 14 -0.058869213
0.61220837 -0.82313806 -0.017906168 2 7 -0.058866911
0.922104 -1.2402568 0.41411048 5 15 -0.058864605
0.91696745 -1.2369514 0.026876707 1 8 -0.058841564
0.94038492 -1.2694664 0.082795486 3 9 -0.058836956
0.94617087 -1.2777435 0.13910057 13 10 -0.058832351
0.91746455 -1.2398822 0.18938497 18 11 -0.058827743
0.93955576 -1.2706642 0.25029516 27 12 -0.058823135
0.93707049 -1.2677656 0.30643925 23 13 -0.058818527
0.58869946 -0.79674435 -0.051917274 2 6 -0.058816221
0.94128138 -1.274393 0.36577043 27 14 -0.058813918
0.91340327 -1.2371008 -0.026841803 1 7 -0.058811612
0.92924118 -1.2590114 0.41928688 9 15 -0.05880931
0.95412797 -1.2965149 0.028098376 6 8 -0.058786269
0.93476468 -1.2711323 0.08269082 18 9 -0.058781661
0.93698448 -1.2746171 0.13840331 22 10 -0.058777053
0.93193436 -1.2686746 0.19328479 28 11 -0.058772445
0.9281013 -1.2643815 0.24841796 32 12 -0.058767837
0.61659628 -0.84000844 -0.091164902 1 5 -0.058765534
0.94309241 -1.2852747 0.30987382 23 13 -0.058763228
0.95801795 -1.3060933 -0.084888928 1 6 -0.058760926
0.93106562 -1.2698132 0.36352092 29 14 -0.05875862
0.90789711 -1.2386687 -0.026806895 3 7 -0.058756318
0.9236989 -1.260689 0.41876921 14 15 -0.058754012
0.93780023 -1.2836903 0.027749326 21 8 -0.058730975
0.93385476 -1.279227 0.083004832 38 9 -0.058726367
0.92900616 -1.2730517 0.13788037 29 10 -0.058721758
0.93100899 -1.2767318 0.19401602 31 11 -0.05871715
0.58349526 -0.80046517 -0.12162561 1 4 -0.058714844
0.91902882 -1.2612276 0.24716648 35 12 -0.058712542
0.90817028 -1.2463259 -0.1349171 1 5 -0.058710236
0.93397665 -1.2822113 0.30834734 22 13 -0.058707934
0.92876428 -1.2755232 -0.08269082 8 6 -0.058705628
0.9323616 -1.2809334 0.36577043 27 14 -0.058703326
0.92592174 -1.2725528 -0.027470089 17 7 -0.05870102
0.91361099 -1.256094 0.41618103 20 15 -0.058698718
0.92274773 -1.2723868 0.027435182 39 8 -0.058675677
0.92586774 -1.2776272 0.08269082 29 9 -0.058671068
0.60135996 -0.82983112 -0.19920459 2 2 -0.058668766
0.9257257 -1.2779003 0.1380547 30 10 -0.05866646
0.65460086 -0.90396333 -0.17677096 1 3 -0.058664158
0.9207266 -1.2719338 0.1927973 32 11 -0.058661852
0.88792026 -1.2270647 -0.18597263 1 4 -0.05865955
0.91809404 -1.2692295 0.24810509 36 12 -0.058657244
0.92133015 -1.2737033 -0.13753176 10 5 -0.058654942
0.92719454 -1.2822819 0.30758414 22 13 -0.058652636
0.91845608 -1.2706639 -0.082167462 26 6 -0.058650333
0.92331928 -1.2778618 0.36397082 27 14 -0.058648027
0.91327804 -1.2644296 -0.027225753 42 7 -0.058645725
0.90922087 -1.2592754 0.41618103 23 15 -0.058643423
0.91362739 -1.2691085 0.027295565 24 8 -0.058620382
0.91440439 -1.2711233 0.082062788 25 9 -0.058615774
0.90730083 -1.2617129 0.13596295 29 10 -0.058611166
0.76674086 -1.0666398 -0.20805787 1 3 -0.05860886
0.91164762 -1.2686919 0.19182236 30 11 -0.058606558
0.885948 -1.2333812 -0.18646011 8 4 -0.058604252
0.91596228 -1.2756357 0.24873082 35 12 -0.058601949
0.89828521 -1.2510173 -0.13474278 18 5 -0.058599643
0.9158439 -1.2759409 0.30529439 23 13 -0.058597341
0.89771402 -1.2511437 -0.080702052 38 6 -0.058595039
0.91658157 -1.27791 0.36307102 27 14 -0.058592733
0.90885872 -1.26761 -0.027225753 40 7 -0.058590431
0.90369421 -1.2608714 0.41566339 23 15 -0.058588125
0.9022159 -1.2625279 0.027086135 32 8 -0.058565084
0.89276999 -1.2497708 0.080492713 27 9 -0.058560476
0.63662469 -0.891527 -0.21294285 2 2 -0.058558173
0.89710325 -1.2567642 0.13509139 24 10 -0.058555868
0.80661362 -1.1304132 -0.21994688 2 3 -0.058553565
0.89338046 -1.2524732 0.18889751 30 11 -0.058551263
0.87493652 -1.2266158 -0.18499769 16 4 -0.058548957
0.90140557 -1.2641907 0.245915 30 12 -0.058546655
0.89391279 -1.2541454 -0.13474278 42 5 -0.058544349
0.90682763 -1.2727345 0.30376795 20 13 -0.058542047
0.87596124 -1.2298676 -0.079131976 46 6 -0.058539741
0.88972831 -1.2491968 0.35407299 24 14 -0.058537439
0.89073253 -1.2510688 -0.026806895 70 7 -0.058535133
0.88494575 -1.2434003 0.40893409 20 15 -0.05853283
0.88413733 -1.2459433 0.026667278 38 8 -0.058509789
0.87937617 -1.2396921 0.079655334 38 9 -0.058505181
0.64729196 -0.91285121 -0.21752228 2 2 -0.058502879
0.8860178 -1.2499794 0.13404553 37 10 -0.058500573
0.79829246 -1.1266348 -0.21869542 2 3 -0.058498271
0.88004315 -1.2424695 0.18694758 37 11 -0.058495965
0.87315887 -1.2327502 -0.18548515 22 4 -0.058493663
0.87323725 -1.233317 0.23934476 36 12 -0.058491357
0.88859797 -1.2554765 -0.13456847 41 5 -0.058489054
0.88219142 -1.2468864 0.29689881 28 13 -0.058486748
0.86726493 -1.226243 -0.078713283 42 6 -0.058484446
0.87095249 -1.2314569 0.34822425 27 14 -0.05848214
0.87618941 -1.2393203 -0.026492754 67 7 -0.058479838
0.86855298 -1.2289741 0.40324008 28 15 -0.058477532
0.87884885 -1.2472336 0.026632372 38 8 -0.058454495
0.87411022 -1.2409686 0.079550661 39 9 -0.058449887
0.63069791 -0.8957296 -0.21294285 2 2 -0.058447581
0.86810648 -1.2333595 0.13195379 33 10 -0.058445279
0.79000521 -1.1228136 -0.21744394 2 3 -0.058442973
0.87363422 -1.2421337 0.18646011 37 11 -0.05844067
0.86792415 -1.2340152 -0.18524142 23 4 -0.058438364
0.86573416 -1.2313582 0.23840615 38 12 -0.058436062
0.86724538 -1.2339652 -0.13195379 42 5 -0.058433756
0.88143754 -1.2546242 0.29804367 35 13 -0.058431454
0.87008095 -1.2389189 -0.079341315 44 6 -0.058429148
0.87022394 -1.2391225 0.34957394 33 14 -0.058426846
0.86977684 -1.2389457 -0.026422944 67 7 -0.05842454
0.86003393 -1.2255223 0.40116954 30 15 -0.058422238
0.86553681 -1.2370335 0.026353134 39 8 -0.058399197
0.86999023 -1.2438604 0.079550661 38 9 -0.058394589
0.64347345 -0.92034203 -0.2182855 2 2 -0.058392286
0.86172909 -1.2329652 0.13160518 31 10 -0.05838998
0.78062081 -1.1173306 -0.21587959 2 3 -0.058387678
0.86723709 -1.241769 0.18597263 38 11 -0.058385372
0.86610049 -1.2401415 -0.18572889 23 4 -0.05838307
0.86390769 -1.2374618 0.2390319 40 12 -0.058380764
0.85858762 -1.2302989 -0.13125655 38 5 -0.058378462
0.87053263 -1.2478793 0.29575396 33 13 -0.058376156
0.86711019 -1.2434357 -0.079445995 45 6 -0.058373854
0.86722469 -1.2436 0.35002387 35 14 -0.058371548
0.86909419 -1.2467445 -0.026527658 69 7 -0.058369245
0.85486072 -1.2267824 0.4006519 31 15 -0.058366939
0.8678394 -1.2500534 0.026562562 38 8 -0.058362089
0.86065394 -1.2406276 0.079131976 39 9 -0.058357481
0.64457202 -0.92914677 -0.21981198 2 2 -0.058355175
0.85833961 -1.2377526 0.13177948 33 10 -0.058352873
0.79340118 -1.144536 -0.22057262 2 3 -0.058350567
0.86041862 -1.241676 0.18548515 37 11 -0.058348265
0.85794127 -1.2385623 -0.18499769 26 4 -0.058345959
0.85914981 -1.2407699 0.2390319 38 12 -0.058343656
0.85180426 -1.2301614 -0.13090792 43 5 -0.05834135
0.86371851 -1.2478331 0.29499072 33 13 -0.058339048
0.85572833 -1.2367508 -0.078817956 44 6 -0.058336742
0.85911775 -1.2421125 0.34867415 35 14 -0.05833444
0.85065383 -1.2303344 -0.0261088 63 7 -0.058332134
0.85453749 -1.2364128 0.40272245 31 15 -0.058329832
0.86006659 -1.2481352 0.026457848 40 8 -0.058306791
0.84952205 -1.2337542 0.078503944 43 9 -0.058302183
0.62239683 -0.90390199 -0.21332446 2 2 -0.05829988
0.8540138 -1.2407411 0.13177948 32 10 -0.058297575
0.7759645 -1.1277698 -0.21681818 2 3 -0.058295272
0.85382921 -1.2414007 0.18499769 38 11 -0.058292966
0.85023868 -1.2366424 -0.18426646 30 4 -0.058290664
0.85257572 -1.2405053 0.23840615 38 12 -0.058288358
0.8497619 -1.2364112 -0.13125655 38 5 -0.058286056
0.85713392 -1.247604 0.29422748 34 13 -0.05828375
0.84914464 -1.2364377 -0.078608617 45 6 -0.058281448
0.84374726 -1.2290379 0.34417513 34 14 -0.058279142
0.844091 -1.2299986 -0.026038991 60 7 -0.05827684
0.84584504 -1.233016 0.4006519 32 15 -0.058274534
0.85909134 -1.2560816 0.026562562 39 8 -0.058251496
0.8463372 -1.238361 0.078608617 37 9 -0.058246888
0.64250082 -0.94010752 -0.22133845 2 2 -0.058244582
0.84742975 -1.2404245 0.13143085 32 10 -0.05824228
0.77090919 -1.1288404 -0.21650532 2 3 -0.058239974
0.84949076 -1.2443736 0.18499769 38 11 -0.058237672
0.84144098 -1.233044 -0.18329151 31 4 -0.058235366
0.84156132 -1.2336826 0.23652895 38 12 -0.058233064
0.84094983 -1.2327862 -0.1305593 40 5 -0.058230758
0.85719806 -1.2570765 0.29575396 33 13 -0.058228455
0.84932333 -1.2459954 -0.079027303 45 6 -0.05822615
0.84164661 -1.2351966 0.34507492 34 14 -0.058223847
0.84654671 -1.242854 -0.02624842 69 7 -0.058221545
0.83718687 -1.2295736 0.39858136 32 15 -0.058219239
0.85357845 -1.2574182 0.026527658 40 8 -0.058196198
0.83864576 -1.2363491 0.078294598 43 9 -0.05819159
0.64362371 -0.94884348 -0.22286493 2 2 -0.058189288
0.83862209 -1.2367789 0.13073361 32 10 -0.058186982
0.77361411 -1.1413355 -0.21838254 2 3 -0.05818468
0.8473689 -1.250618 0.18548515 38 11 -0.058182374
0.83713174 -1.2359737 -0.18329151 33 4 -0.058180071
0.83946472 -1.2398841 0.23715468 38 12 -0.058177769
0.83664143 -1.2357141 -0.1305593 38 5 -0.058175463
0.85060406 -1.2568092 0.29499072 34 13 -0.058173161
0.84496886 -1.2489525 -0.079027303 45 6 -0.058170855
0.83951324 -1.2413554 0.34597474 33 14 -0.058168553
0.82764381 -1.2242649 -0.025794657 60 7 -0.058166247
0.83072639 -1.229287 0.39754605 32 15 -0.058163945
0.83689308 -1.2421476 0.026143704 38 8 -0.058140904
0.83544028 -1.2409258 0.078399271 40 9 -0.058136296
0.62057209 -0.9217701 -0.2159958 2 2 -0.05813399
0.83207506 -1.2363927 0.13038498 31 10 -0.058131687
0.75529134 -1.1227219 -0.21431525 2 3 -0.058129385
0.84189051 -1.2519209 0.18524142 40 11 -0.058127079
0.83613461 -1.2438306 -0.18402272 33 4 -0.058124777
0.83513165 -1.2428069 0.23715468 38 12 -0.058122471
0.82565546 -1.2287048 -0.12951343 41 5 -0.058120169
0.8352645 -1.2434735 0.29117453 33 13 -0.058117863
0.83615047 -1.2452619 -0.078608617 45 6 -0.058115561
0.83300298 -1.2410421 0.34507492 33 14 -0.058113255
0.83673519 -1.2470732 -0.026213516 71 7 -0.058110952
0.82750648 -1.233784 0.39806372 31 15 -0.058108646
0.83477533 -1.2483859 0.026213516 38 8 -0.058085606
0.82999402 -1.2421738 0.078294598 43 9 -0.058081001
0.61516929 -0.92066592 -0.21523255 2 2 -0.058078695
0.82996738 -1.2426034 0.13073361 32 10 -0.058076393
0.75575525 -1.1319228 -0.21556671 2 3 -0.058074087
0.82539344 -1.2366897 0.18256028 38 11 -0.058071785
0.8262794 -1.2384852 -0.18280403 37 4 -0.058069479
0.83298039 -1.2490014 0.23778042 38 12 -0.058067176
0.8235724 -1.2348948 -0.12986206 38 5 -0.058064871
0.83091897 -1.2463815 0.29117453 33 13 -0.058062568
0.82515305 -1.2382009 -0.077980585 48 6 -0.058060262
0.82650501 -1.2406987 0.34417513 33 14 -0.05805796
0.82683522 -1.2416642 -0.026038991 61 7 -0.058055654
0.81998324 -1.2318405 0.39651078 32 15 -0.058053352
0.82598948 -1.2446275 0.026073895 38 8 -0.058030311
0.8192457 -1.2349334 0.077666566 43 9 -0.058025703
0.60869688 -0.91789919 -0.21408771 2 2 -0.058023401
0.82562482 -1.2454929 0.13073361 32 10 -0.058021095
0.74961734 -1.1312606 -0.21494098 2 3 -0.058018792
0.82107151 -1.2395633 0.18256028 38 11 -0.058016486
0.81427956 -1.2297758 -0.18109787 37 4 -0.058014184
0.82665282 -1.2484626 0.23715468 38 12 -0.058011878
0.81925678 -1.237762 -0.12986206 38 5 -0.058009576
0.8308965 -1.2558237 0.29270101 34 13 -0.05800727
0.82523298 -1.2477372 -0.078399271 45 6 -0.058004968
0.81357127 -1.2305715 0.3405759 33 14 -0.058002662
0.81168497 -1.2277184 -0.025689943 61 7 -0.05800036
0.81802404 -1.2377762 0.39754605 32 15 -0.057998054
0.824058 -1.2506994 0.026143704 37 8 -0.057975017
0.81712651 -1.2411219 0.077875912 43 9 -0.057970408
0.60548908 -0.92001832 -0.21408771 2 2 -0.057968102
0.82127225 -1.2483673 0.13073361 31 10 -0.0579658
0.75563288 -1.1485927 -0.21775681 2 3 -0.057963494
0.82350087 -1.2522308 0.18402272 38 11 -0.057961192
0.81128746 -1.2341281 -0.18134159 34 4 -0.057958886
0.815781 -1.2414356 0.23527746 40 12 -0.057956584
0.81711894 -1.2439445 -0.13021068 45 5 -0.057954278
0.82672745 -1.2585721 0.29270101 34 13 -0.057951976
0.81670588 -1.2437888 -0.077980585 45 6 -0.05794967
0.81804079 -1.2462958 0.34417513 35 14 -0.057947367
0.80739439 -1.2305442 -0.025689943 63 7 -0.057945065
0.81581748 -1.2438548 0.39858136 32 15 -0.057942759
0.82187611 -1.2569156 0.026213516 40 8 -0.057919718
0.81497413 -1.2473108 0.078085259 42 9 -0.05791511
0.60350859 -0.92366463 -0.21446933 2 2 -0.057912808
0.80841202 -1.237739 0.12933911 33 10 -0.057910502
0.73650002 -1.1280665 -0.21337664 2 3 -0.0579082
0.814785 -1.2484484 0.18304777 38 11 -0.057905894
0.8091439 -1.2402776 -0.18182908 38 4 -0.057903592
0.81252164 -1.2459302 0.23559032 37 12 -0.057901286
0.80210596 -1.2299587 -0.12846756 38 5 -0.057898983
0.81804061 -1.2548716 0.29117453 32 13 -0.057896681
0.81672084 -1.2533253 -0.078399271 45 6 -0.057894375
0.80943078 -1.2426122 0.34237552 33 14 -0.057892073
0.80091178 -1.2300034 -0.025620133 60 7 -0.057889767
0.80303973 -1.2337424 0.39444023 32 15 -0.057887465
0.81095254 -1.2497121 0.026004087 38 8 -0.057864424
0.80844206 -1.2467961 0.077875912 42 9 -0.057859816
0.60028082 -0.92576551 -0.21446933 2 2 -0.05785751
0.80191916 -1.2372096 0.12899049 32 10 -0.057855207
0.73900276 -1.1405774 -0.21525384 2 3 -0.057852902
0.81365943 -1.2562833 0.18377897 41 11 -0.057850599
0.80588841 -1.2447608 -0.18207282 42 4 -0.057848297
0.80709434 -1.2471005 0.23527746 38 12 -0.057845991
0.80213779 -1.2394418 -0.12916481 40 5 -0.057843689
0.81152254 -1.2544229 0.29041129 34 13 -0.057841383
0.81017184 -1.2528144 -0.078189924 45 6 -0.057839081
0.81143594 -1.2552495 0.34507492 33 14 -0.057836775
0.80203992 -1.2411894 -0.025794657 65 7 -0.057834473
0.79872829 -1.2365379 0.39444023 32 15 -0.057832167
0.80441993 -1.2491727 0.025934275 38 8 -0.057809126
0.80192351 -1.2462515 0.077666566 42 9 -0.057804517
0.62041759 -0.96417707 -0.22286493 2 2 -0.057802215
0.79975122 -1.2433525 0.12933911 36 10 -0.057799913
0.73074347 -1.1365038 -0.21400237 2 3 -0.057797607
0.8017562 -1.2474264 0.18207282 38 11 -0.057795305
0.79939252 -1.2442261 -0.18158534 41 4 -0.057792999
0.8006013 -1.246586 0.23465173 42 12 -0.057790697
0.7956531 -1.2388813 -0.12881619 38 5 -0.057788391
0.80289626 -1.2506396 0.28888482 33 13 -0.057786088
0.79932153 -1.2455494 -0.0775619 48 6 -0.057783782
0.79652721 -1.2416718 0.3405759 34 14 -0.05778148
0.79986131 -1.2473482 -0.025864467 67 7 -0.057779174
0.7923221 -1.2360657 0.39340496 34 15 -0.057776872
0.80005461 -1.251973 0.025934275 39 8 -0.057753831
0.78896916 -1.2355764 0.076829188 42 9 -0.057749223
0.62972713 -0.98619312 -0.22744434 2 2 -0.057746921
0.79540634 -1.2461365 0.12933911 34 10 -0.057744615
0.72145927 -1.1307213 -0.21243803 2 3 -0.057742313
0.79526216 -1.2468702 0.18158534 38 11 -0.057740007
0.78437275 -1.2302705 -0.17914794 41 4 -0.057737704
0.79412174 -1.2460412 0.23402599 44 12 -0.057735398
0.78918219 -1.2382907 -0.12846756 41 5 -0.057733096
0.80063558 -1.2567462 0.28964809 33 13 -0.05773079
0.78853178 -1.238224 -0.076933861 48 6 -0.057728488
0.78590924 -1.2345811 0.3378765 34 14 -0.057726182
0.79442871 -1.2484454 -0.025829561 63 7 -0.05772388
0.79214996 -1.245344 0.39547554 34 15 -0.057721574
0.799963 -1.2615131 0.026073895 37 8 -0.057698537
0.7846514 -1.2383229 0.076829188 42 9 -0.057693928
0.59685826 -0.9419511 -0.21675903 2 2 -0.057691623
0.78678721 -1.242173 0.12864187 34 10 -0.05768932
0.73018843 -1.1532605 -0.21619245 2 3 -0.057687014
0.79408967 -1.2546706 0.18231656 40 11 -0.057684712
0.78007352 -1.233001 -0.17914794 44 4 -0.057682406
0.78448814 -1.2404581 0.23246165 45 12 -0.057680104
0.78485483 -1.241038 -0.12846756 38 5 -0.057677798
0.79834211 -1.2628522 0.29041129 34 13 -0.057675496
0.7842049 -1.2409688 -0.076933861 45 6 -0.05767319
0.78367645 -1.2406119 0.33877629 33 14 -0.057670888
0.78472769 -1.2427568 -0.025655037 67 7 -0.057668582
0.78161126 -1.2382996 0.39236969 32 15 -0.057666279
0.79129475 -1.2575279 0.025934275 38 8 -0.057643238
0.78457648 -1.2478175 0.07724788 42 9 -0.05763863
0.6040166 -0.96064895 -0.2205752 2 2 -0.057636328
0.78244638 -1.2449118 0.12864187 34 10 -0.057634022
0.72405654 -1.1524571 -0.21556671 2 3 -0.05763172
0.79076093 -1.2591159 0.18256028 38 11 -0.057629414
0.7778756 -1.2390789 -0.17963544 44 4 -0.057627112
0.77910334 -1.2415156 0.23214878 45 12 -0.057624806
0.77839988 -1.2403948 -0.12811893 38 5 -0.057622503
0.78558278 -1.2523263 0.28735834 34 13 -0.057620198
0.78835678 -1.2572356 -0.077771239 46 6 -0.057617895
0.7793411 -1.2433399 0.33877629 34 14 -0.057615593
0.77082908 -1.2302375 -0.025340894 66 7 -0.057613287
0.77113128 -1.2311971 0.38926387 34 15 -0.057610985
0.77842754 -1.2467126 0.025655037 38 8 -0.057587944
0.7781018 -1.2471596 0.077038541 43 9 -0.057583336
0.60689509 -0.97274554 -0.22286493 2 2 -0.05758103
0.77598745 -1.2442542 0.12829326 36 10 -0.057578728
0.70644408 -1.1331855 -0.21149944 2 3 -0.057576422
0.78111154 -1.2534449 0.18134159 42 11 -0.057574119
0.77669442 -1.2468414 -0.18036664 46 4 -0.057571813
0.7747649 -1.2442278 0.23214878 45 12 -0.057569511
0.76985276 -1.2363391 -0.12742169 38 5 -0.057567209
0.77705663 -1.2483937 0.28583187 38 13 -0.057564903
0.77763253 -1.249805 -0.077143207 45 6 -0.057562601
0.77602547 -1.2477076 0.33922619 35 14 -0.057560295
0.77708852 -1.2499032 -0.025689943 69 7 -0.057557993
0.76682895 -1.2338814 0.38926387 34 15 -0.057555687
0.77723044 -1.254522 0.025759753 40 8 -0.057532646
0.77058971 -1.2447735 0.076724522 40 9 -0.057528038
0.60556257 -0.97819656 -0.22362815 2 2 -0.057525735
0.77059096 -1.2452611 0.12811893 37 10 -0.057523433
0.71287584 -1.1524439 -0.21462812 2 3 -0.057521127
0.7704674 -1.2460334 0.17987917 40 11 -0.057518825
0.76503164 -1.237725 -0.17866047 44 4 -0.057516519
0.77249372 -1.2502855 0.23277451 45 12 -0.057514217
0.76553255 -1.2390188 -0.12742169 41 5 -0.057511911
0.7747575 -1.2544394 0.28659514 32 13 -0.057509609
0.76696998 -1.2423149 -0.076515175 45 6 -0.057507303
0.76654822 -1.2421169 0.33697668 37 14 -0.057505
0.76642138 -1.2423966 -0.025480513 66 7 -0.057502694
0.76454514 -1.2398393 0.39029911 33 15 -0.057500392
0.76970494 -1.2521167 0.025655037 38 8 -0.057477351
0.7599678 -1.2372447 0.07609649 41 9 -0.057472743
0.59392381 -0.96692139 -0.2205752 2 2 -0.057470441
0.76623946 -1.2479434 0.12811893 34 10 -0.057468135
0.70781547 -1.1532419 -0.21431525 2 3 -0.057465833
0.76715153 -1.2504072 0.1801229 38 11 -0.057463527
0.75447971 -1.2302347 -0.17719805 44 4 -0.057461224
0.76605982 -1.2496063 0.23214878 46 12 -0.057458919
0.76328558 -1.2450808 -0.12777032 38 5 -0.057456616
0.7662707 -1.2504404 0.28506866 37 13 -0.05745431
0.76262873 -1.2449845 -0.076515175 46 6 -0.057452008
0.75813729 -1.2381376 0.33517709 37 14 -0.057449702
0.75790417 -1.238242 -0.025340894 66 7 -0.0574474
0.7622292 -1.2457962 0.39133441 32 15 -0.057445094
0.76532966 -1.2547958 0.025655037 39 8 -0.057422057
0.75876254 -1.2450063 0.076410502 43 9 -0.057417449
0.59463185 -0.97569448 -0.22210167 2 2 -0.057415143
0.75980562 -1.2472075 0.12777032 33 10 -0.05741284
0.7007032 -1.1506439 -0.21337664 2 3 -0.057410534
0.76071769 -1.2496864 0.17963544 38 11 -0.057408232
0.75224453 -1.2362525 -0.17768551 45 4 -0.057405926
0.76066667 -1.2505851 0.23183592 46 12 -0.057403624
0.75479323 -1.2409286 -0.12707306 40 5 -0.057401318
0.76802105 -1.2631726 0.28735834 34 13 -0.057399016
0.75827831 -1.2476391 -0.076515175 45 6 -0.05739671
0.75381088 -1.2407763 0.33517709 37 14 -0.057394408
0.75357735 -1.24088 -0.025340894 64 7 -0.057392102
0.75787586 -1.2484492 0.39133441 32 15 -0.0573898
0.76301557 -1.2608813 0.025724847 39 8 -0.057366759
0.75234509 -1.2442292 0.076201163 43 9 -0.05736215
0.59325415 -0.98112428 -0.22286493 2 2 -0.057359848
0.75544745 -1.2498521 0.12777032 34 10 -0.057357542
0.7079193 -1.1716809 -0.21681818 3 3 -0.05735524
0.75635082 -1.2523341 0.17963544 40 11 -0.057352934
0.74792475 -1.2388707 -0.17768551 46 4 -0.057350632
0.75527585 -1.2515413 0.23152302 45 12 -0.057348326
0.74428028 -1.2333208 -0.12602721 41 5 -0.057346024
0.75752246 -1.2557595 0.28506866 37 13 -0.057343718
0.758044 -1.2571199 -0.076933861 45 6 -0.057341415
0.74947506 -1.2434001 0.33517709 39 14 -0.057339109
0.75027335 -1.2452159 -0.0253758 70 7 -0.057336807
0.74354631 -1.2345384 0.38615805 34 15 -0.057334505
0.7524336 -1.2532505 0.025515417 37 8 -0.057311464
0.75005245 -1.2502731 0.076410502 42 9 -0.057306856
0.58982587 -0.98318917 -0.22286493 2 2 -0.05730455
0.74698138 -1.2456466 0.12707306 34 10 -0.057302248
0.69265324 -1.1555077 -0.21337664 2 3 -0.057299942
0.74687332 -1.2464527 0.17841674 40 11 -0.05729764
0.74359566 -1.2414739 -0.17768551 46 4 -0.057295334
0.74887305 -1.2507805 0.23089729 45 12 -0.057293031
0.74201757 -1.2393303 -0.12637582 38 5 -0.057290725
0.751118 -1.2550268 0.28430542 36 13 -0.057288423
0.74442291 -1.2443327 -0.075991817 49 6 -0.057286121
0.7491309 -1.2526987 0.33697668 37 14 -0.057283815
0.74592215 -1.2478272 -0.0253758 70 7 -0.057281513
0.74220508 -1.2421014 0.38771093 36 15 -0.057279207
0.74805444 -1.2558693 0.025515417 37 8 -0.057256166
0.74181509 -1.2458891 0.075991817 42 9 -0.057251558
0.59843934 -1.0054867 -0.22744434 2 2 -0.057249255
0.74466604 -1.251671 0.12742169 38 10 -0.05724695
0.68457675 -1.1511272 -0.21212517 2 3 -0.057244647
0.7384603 -1.2422266 0.17744178 40 11 -0.057242345
0.74027163 -1.2457685 -0.17792925 50 4 -0.057240039
0.74976695 -1.2617478 0.23246165 45 12 -0.057237737
0.73972213 -1.2453388 -0.12672445 41 5 -0.057235431
0.74472803 -1.2542648 0.28354219 36 13 -0.057233129
0.74007487 -1.2469236 -0.075991817 48 6 -0.057230823
0.74077624 -1.2486022 0.33517709 37 14 -0.057228521
0.74177998 -1.250294 -0.0253758 70 7 -0.057226215
0.73315495 -1.2362478 0.38512275 34 15 -0.057223912
0.74592078 -1.261786 0.025585229 36 8 -0.057200871
0.7323826 -1.2398727 0.075468451 40 9 -0.057196263
0.59891868 -1.0143317 -0.22897081 2 2 -0.057193961
0.74029243 -1.2542626 0.12742169 37 10 -0.057191655
0.69682086 -1.1806096 -0.21713105 3 3 -0.057189353
0.73635423 -1.248088 0.17792925 41 11 -0.057187047
0.73109436 -1.2396671 -0.17671056 46 4 -0.057184745
0.73632938 -1.249042 0.22964582 45 12 -0.057182439
0.73334748 -1.2444803 -0.12637582 41 5 -0.057180136
0.74355477 -1.2618018 0.28468704 38 13 -0.05717783
0.73188108 -1.2424874 -0.075573131 49 6 -0.057175528
0.72872162 -1.2376176 0.33157787 37 14 -0.057173222
0.73436809 -1.2477055 -0.025271084 68 7 -0.05717092
0.73471302 -1.2487895 0.3882286 34 15 -0.057168614
0.74151194 -1.2643819 0.025585229 37 8 -0.057145577
0.72927725 -1.2440175 0.075573131 42 9 -0.057140969
0.58364075 -0.99598593 -0.22439139 2 2 -0.057138663
0.73210102 -1.2498342 0.12672445 38 10 -0.057136361
0.69169736 -1.1813301 -0.21681818 3 3 -0.057134055
0.72998756 -1.2472245 0.17744178 40 11 -0.057131752
0.72475773 -1.2387848 -0.17622308 46 4 -0.057129446
0.73118585 -1.249772 0.22933295 46 12 -0.057127144
0.72720498 -1.2434654 -0.12602721 41 5 -0.057124838
0.7391457 -1.2643896 0.28468704 38 13 -0.057122536
0.73056251 -1.2502079 -0.075887144 46 6 -0.05712023
0.72439706 -1.2401538 0.33157787 39 14 -0.057117928
0.71812344 -1.2294134 -0.024852226 60 7 -0.057115622
0.72667146 -1.2445461 0.38615805 34 15 -0.05711332
0.73731494 -1.2668339 0.025585229 37 8 -0.057090279
0.72292221 -1.2431026 0.075363785 43 9 -0.057085671
0.58608055 -1.008201 -0.2266811 2 2 -0.057083368
0.72573179 -1.2489368 0.12637582 37 10 -0.057081062
0.68082887 -1.1716617 -0.21462812 2 3 -0.05707876
0.73183 -1.2599375 0.17890421 41 11 -0.057076454
0.72263938 -1.2446147 -0.17671056 52 4 -0.057074152
0.72582746 -1.2506082 0.22902009 46 12 -0.057071846
0.72086048 -1.2425495 -0.12567857 40 5 -0.057069544
0.73100811 -1.260041 0.28316057 38 13 -0.057067238
0.72440875 -1.2491682 -0.075677805 46 6 -0.057064936
0.72223514 -1.245921 0.33247769 38 14 -0.05706263
0.71382749 -1.2319127 -0.024852226 62 7 -0.057060327
0.71651304 -1.2370448 0.3830522 35 15 -0.057058021
0.72467047 -1.2556722 0.025305988 38 8 -0.057000242
0.72135425 -1.2509345 0.075677805 41 9 -0.056995634
0.57863468 -1.0034378 -0.22515462 2 2 -0.056993328
0.71738774 -1.2445577 0.12567857 38 10 -0.056991026
0.68244708 -1.1844187 -0.21650532 2 3 -0.05698872
0.72126269 -1.2522902 0.17744178 41 11 -0.056986418
0.71708232 -1.2455347 -0.17646682 50 4 -0.056984112
0.7192682 -1.2498357 0.22839434 48 12 -0.056981809
0.71254355 -1.2381507 -0.12498133 41 5 -0.056979503
0.72051108 -1.2525015 0.28087085 37 13 -0.056977201
0.72181672 -1.2552775 -0.075887144 45 6 -0.056974895
0.71766388 -1.2485597 0.33247769 39 14 -0.056972593
